# 3D point list with one line of data per point:
#   POINT3D_ID, X, Y, Z, R, G, B, ERROR, TRACK[] as (IMAGE_ID, POINT2D_IDX)
# Number of points: 709, mean track length: 2.89349
916 0.419383 2.72836 8.61746 0 8 14 0.40793 4 5823 5 5657 6 5991 4 6677 2 5037 1 3559 3 2372
493 3.72918 1.22865 7.95696 29 53 63 0.363795 4 3851 5 1323
1425 1.84764 2.40026 8.06244 24 50 63 0.418482 4 7714 5 7836 6 6455
102 3.28739 1.35983 7.98358 48 72 84 0.828285 4 1424 5 1299 1 3005
103 3.62667 1.48078 7.88894 0 11 15 0.0995961 4 1440 5 1566
1092 -6.99868 2.14969 15.8715 8 25 32 0.575126 4 6540 5 6933 3 5954
503 4.41354 1.47131 7.73066 78 89 93 0.0126615 4 3883 5 1587
104 4.17308 1.30486 7.84988 2 13 19 0.014163 4 1451 5 1574
105 4.18045 1.48505 7.79122 78 89 95 0.143646 4 1461 5 1579
920 0.814122 2.62281 8.42533 0 0 9 0.00344544 4 5828 5 5660
1094 -5.50497 2.15055 15.239 105 139 140 0.0738927 4 6543 5 6937
497 4.0951 1.20223 7.88094 0 0 9 0.320081 4 3861 5 3868
106 -9.48114 1.98144 19.8066 162 188 187 0.904224 4 1541 5 3735
1946 2.33603 2.95762 7.66399 134 151 167 0.320741 5 6604 1 7451 3 2577
107 -9.54632 2.04304 19.8405 114 140 141 0.941742 4 1542 5 1117
491 1.89178 1.50868 8.39778 101 135 142 0.214636 4 3839 5 5377 6 1959 2 2085 1 6791
1439 -5.22346 4.02131 13.379 115 147 141 0.70422 4 7761 5 7840
108 -6.71817 2.04301 15.899 128 157 157 0.167624 4 1548 5 1131
109 -6.38513 2.0343 15.7602 65 86 89 0.22077 4 1552 5 1133
924 3.78463 2.45325 7.45858 38 54 63 0.0995011 4 5838 5 4384
501 4.33168 1.47053 7.74373 81 92 96 0.108746 4 3881 5 1585
1433 -1.70615 2.844 10.177 146 176 184 0.690535 4 7736 5 7827 6 7394 2 7837
110 -5.57344 1.92694 15.1892 2 22 25 0.331539 4 1553 5 1152
111 -5.07574 1.6606 15.1746 127 147 150 0.392887 4 1556 5 3610
1100 0.664656 2.08706 8.74059 2 9 22 0.227156 4 6559 5 6445 6 5925 2 6346 1 6953 3 4625
511 -1.25871 1.77096 10.218 2 12 23 0.264013 4 3992 5 3781 6 4886 2 2033
112 -5.09775 1.98073 14.8598 1 7 11 0.20165 4 1558 5 3747
113 -3.65063 1.74594 14.4352 88 112 116 0.222261 4 1565 5 1179
992 3.90743 4.45028 6.71226 5 9 10 0.209345 4 6165 5 4879
1102 0.794124 2.13543 8.62129 81 112 117 0.0974161 4 6561 5 7020
505 -6.19259 1.93357 15.4793 7 28 31 0.297325 4 3967 5 5319
114 -2.0497 1.73666 11.0455 75 101 114 0.233418 4 1577 5 3765
2018 0.170178 0.134542 9.67901 31 47 70 0.243863 2 8734 1 12132 3 8359
115 -1.49784 1.5874 10.4815 2 25 31 0.203648 4 1582 5 5251 2 2029
499 4.16291 1.52428 7.74601 0 6 12 0.00370504 4 3869 5 1580
1511 1.58403 -0.00954448 8.96633 59 88 106 1.25931 4 8181 5 7964
116 -1.73004 1.60482 10.7003 92 120 132 0.222951 4 1583 5 5248
117 -1.47295 1.73887 10.4267 156 173 183 0.0977346 4 1589 5 3779
996 2.09505 -0.708797 9.38823 133 154 157 0.368254 4 6254 5 6117 6 4605 2 5967 1 8564 3 5801
509 -1.47157 1.51928 10.4979 197 211 222 0.0610388 4 3988 5 5250 6 6270
1505 -3.49737 4.55888 8.3219 60 76 75 0.0264132 4 8120 5 8113
118 -0.796853 1.59557 9.90744 10 27 38 0.217272 4 1597 5 3785 6 3541
119 -0.769787 1.68756 9.83446 178 202 212 0.244048 4 1601 5 3789
1829 1.61527 0.687556 8.83746 122 137 158 0.557559 4 5290 2 6166 3 1625
1108 2.74496 1.85017 7.63273 68 101 116 0.341702 4 6571 5 6458 6 4066
455 3.5743 0.941135 8.11717 54 79 93 0.252086 4 3711 5 5279 2 1875
120 -0.750055 1.72595 9.80808 10 26 35 0.178337 4 1605 5 3791
121 -0.526576 1.54145 9.71744 3 18 29 0.244698 4 1606 5 1227 6 3549
1000 2.36364 -0.712198 9.31889 131 152 157 0.661666 4 6258 5 6120 2 5971 1 8565 3 3912
1110 3.21806 2.12819 7.71435 30 53 67 0.403976 4 6573 5 6511 2 6427 1 7133
449 0.336437 1.09924 9.31481 1 8 20 0.158028 4 3684 5 5264 6 4904 1 2629
122 -0.529733 1.57774 9.69991 87 101 115 0.317938 4 1607 5 1229 6 1259
2026 -5.84785 0.731259 15.922 143 147 164 0.368948 2 4423 5 5139 3 1565
123 -0.71858 1.64496 9.82192 0 8 14 0.368259 4 1609 5 3793
507 -4.59172 1.92361 14.8416 6 24 29 0.269834 4 3973 5 5327
1519 -4.05346 1.29428 14.8046 117 141 145 0.773871 4 8202 5 7983 6 7460
124 -0.361167 1.64045 9.54441 185 197 209 0.381005 4 1611 5 3799 6 4973
125 -0.361167 1.64045 9.54441 185 197 209 0.381005 4 1612 5 3800 6 4972
1004 -2.17766 -1.11735 12.709 118 137 141 0.729438 4 6285 5 6811
453 0.867603 0.8255 9.12806 0 12 19 0.0722142 4 3692 5 3508 6 1305
1513 0.000113351 0.215367 9.59696 114 144 155 1.77214 4 8185 5 7960 2 8404 3 7877
126 -0.350598 1.75409 9.4952 160 177 187 0.183565 4 1615 5 3803 6 3658
127 0.266748 1.56166 9.19556 151 166 175 0.0928009 4 1626 5 1249
128 0.415839 1.78094 8.97969 145 173 182 0.112466 4 1634 5 1256
785 4.19807 0.784769 8.03319 12 27 33 0.234926 4 5319 5 3713
314 -1.24751 4.49817 9.03983 2 17 22 0.23713 4 2873 5 5887
1302 -3.67758 3.87997 13.4571 107 134 137 0.177487 4 7311 5 7085
129 1.70973 1.66629 8.3879 116 148 157 0.309815 4 1650 5 1536
1811 -0.170371 3.11336 8.44933 1 3 10 0.213224 6 6022 2 5133 3 2552
130 1.74934 1.72065 8.36703 65 97 108 0.541337 4 1654 5 1538
1207 3.95118 0.282631 8.27546 1 15 26 0.190817 4 7007 5 6895
260 1.86777 2.98115 7.78296 2 15 28 0.442179 4 2509 5 4489 2 2779
131 1.90231 1.6131 8.34703 112 138 155 0.211858 4 1661 5 1540
132 1.81537 1.74983 8.35476 1 20 37 0.0945366 4 1662 5 1539
789 0.445784 1.05229 9.31116 102 133 138 0.419755 4 5344 5 5179 2 4589 1 6589 3 1808
2008 -0.50971 1.22084 9.65296 46 59 75 1.66648 2 8611 1 11734 3 8163
1193 1.89428 -0.631434 9.4554 92 113 115 0.769333 4 6969 5 6114 6 3105 2 7028
318 0.505274 4.22296 8.03059 1 9 16 0.255785 4 2886 5 2816
133 1.98032 1.71847 8.26962 66 101 120 0.769917 4 1664 5 3962 2 2279
134 3.2266 1.57556 7.92773 70 93 103 0.408585 4 1670 5 1557
312 -1.48251 4.6448 9.19882 35 47 47 0.00107586 4 2870 5 5958
1300 1.80111 2.77556 7.93169 84 113 121 0.482057 4 7286 5 7562 2 7338 1 10299 3 6228 6 6485
135 4.00076 1.64654 7.73459 11 33 44 0.084414 4 1694 5 1582
136 4.24158 1.58903 7.71013 0 7 13 0.197202 4 1699 5 1589
793 3.68851 1.04246 8.0402 74 97 105 0.155452 4 5364 5 3844
258 1.8668 2.97241 7.85445 51 69 81 0.190463 4 2506 5 2403
1310 4.65976 2.98756 7.15333 39 48 55 0.653235 4 7334 5 6637 2 6544
137 4.59004 1.83509 7.58834 2 3 7 0.537282 4 1720 5 1800
1819 2.6885 3.7697 6.15771 67 68 70 0.893498 4 6901 5 6742 2 5449 1 4884 3 3046
138 4.82893 1.79193 7.5972 0 0 4 0.130589 4 1725 5 1807
1215 3.44002 0.647583 8.22496 62 93 104 0.424546 4 7028 5 6893 2 7149
268 -1.03825 3.45775 9.26897 0 11 18 0.218204 4 2572 5 4449
139 -7.07447 2.78192 15.6955 1 7 14 0.310447 4 1797 5 5410
140 -7.07447 2.78192 15.6955 1 7 14 0.310447 4 1798 5 5411
797 3.74964 1.18793 7.95697 106 126 135 0.219566 4 5381 5 5384
1201 3.36321 0.294824 8.38558 68 99 119 0.000502178 4 7001 5 6179
262 2.77893 2.74174 7.28578 96 124 136 0.575047 4 2513 5 4500
141 -5.70234 2.18502 15.262 129 154 158 0.00720482 4 1800 5 3743
142 -5.64835 2.40908 15.1463 3 23 27 0.0368932 4 1802 5 1407
256 1.97303 2.85984 7.82278 1 14 24 0.0392747 4 2504 5 2406
1308 0.765627 2.95477 8.33581 120 145 150 0.296372 4 7331 5 7558 6 6842
143 -5.04497 2.09235 14.8344 71 105 106 0.474882 4 1807 5 1157
144 -4.27203 2.2852 14.5976 9 40 43 0.233794 4 1812 5 1420 6 2994
865 -1.33507 2.28622 10.0545 1 8 17 0.360725 4 5628 5 6372 6 6731 2 4794
266 -5.30937 4.63904 13.0812 37 47 44 0.12935 4 2542 5 4412
1382 -0.42838 1.68491 9.58733 3 16 25 0.566291 4 7623 5 7428 6 7012
145 -3.53927 2.32505 14.1732 52 77 82 0.168753 4 1817 5 1430
1891 0.577638 2.05497 8.79763 149 167 179 0.459778 6 7250 2 8440 3 7925
146 -3.52272 2.40647 14.0118 40 69 75 0.506865 4 1820 5 1429
1159 2.19116 3.24386 6.50459 78 97 104 0.40198 4 6802 5 6667 2 6640 1 7713 3 2908
276 2.69042 3.20318 6.37223 39 58 65 0.212871 4 2715 5 2595
147 -3.55806 2.43286 13.9668 113 142 148 0.181332 4 1821 5 3917
148 -2.31634 2.33685 11.0633 120 147 158 0.0832844 4 1822 5 5451
869 -0.666678 2.2054 9.53108 157 180 186 0.0408611 4 5635 5 5467
1209 -5.01897 -0.298812 18.2885 64 104 137 0.962595 4 7013 5 6857
270 0.475565 3.22196 8.38233 1 3 12 1.58593 4 2599 5 2376
149 -2.18999 2.22971 10.8991 1 11 19 0.0585382 4 1827 5 3920
150 -1.45446 2.00466 10.309 154 182 188 0.161706 4 1829 5 3926
264 4.85032 2.87622 7.17586 0 2 5 0.386296 4 2517 5 2504
1380 -1.59377 1.57441 10.5366 20 36 49 0.481592 4 7621 5 7985 2 7783 1 10860
151 -1.26329 2.07694 10.0535 3 14 18 0.0952086 4 1834 5 3931
152 -1.5441 2.14303 10.3308 4 19 27 0.263542 4 1836 5 3929
873 4.43175 2.06973 7.48916 33 38 42 0.2407 4 5660 5 4264
274 0.701118 3.40812 7.02755 56 79 87 0.357375 4 2694 5 4615 6 2642
1390 4.58156 1.78948 7.58148 0 1 5 0.306766 4 7638 5 7033
153 -1.45913 2.19325 10.1555 3 21 28 0.423393 4 1839 5 5458
1899 1.31917 0.791227 8.56383 159 181 202 0.92247 4 8525 2 8812 1 12254 3 8371
154 -1.45913 2.19325 10.1555 3 21 28 0.423393 4 1840 5 5459
1167 -3.61293 4.41298 8.15368 0 7 2 0.110369 4 6842 5 7200
284 0.0856991 4.02942 8.28654 49 62 68 0.052633 4 2772 5 4689
155 -1.2849 2.25295 10.0267 3 11 21 0.169011 4 1843 5 3934
156 -0.452638 2.0031 9.38994 1 5 11 0.607617 4 1846 5 1477
877 5.06453 1.99018 7.50618 0 1 4 0.140134 4 5666 5 5675
1153 -1.938 3.7021 9.54373 41 59 59 2.55266 4 6756 5 7123
278 -0.795721 3.92712 7.676 21 46 51 0.211753 4 2762 5 4674 6 5444
157 -0.660515 2.15512 9.57061 154 177 183 0.546829 4 1847 5 3941 6 5047
158 0.212503 2.0496 8.99472 111 144 153 0.302683 4 1867 5 3950
272 -0.701096 3.59617 7.755 3 28 33 0.251481 4 2678 5 4591 6 4303
1388 4.08416 1.57708 7.7379 75 98 104 0.338692 4 7635 5 7475 6 5192
159 0.14938 2.15733 9.00524 50 83 92 0.332192 4 1870 5 5550
160 0.264685 2.21154 8.91973 111 144 153 0.0409817 4 1872 5 4083
817 3.78214 1.36233 7.88496 93 113 120 0.203336 4 5475 5 5499
1334 0.694926 3.90332 6.83326 89 108 115 0.645912 4 7435 5 7640
161 0.410194 2.10317 8.86989 86 109 117 0.166105 4 1874 5 3954 6 1935
976 1.0186 3.79433 6.71299 77 105 109 0.658742 4 6106 5 6733 6 4443 1 4701
1843 2.29226 2.79622 7.71041 127 143 156 1.49288 5 6603 2 6492 1 9321
162 0.658733 2.12566 8.71539 148 176 182 0.177294 4 1877 5 1735
1111 3.83683 1.87022 7.6931 84 102 112 0.476998 4 6575 5 5571 2 6369
292 0.736888 3.52541 6.96181 12 31 38 0.409334 4 2784 5 2575 6 2740
2002 0.134206 1.22751 9.3212 131 145 156 0.332728 2 8156 1 11385 3 7503
163 1.89468 1.88931 8.24899 0 17 30 0.543427 4 1886 5 1548
1495 -0.509212 2.78385 9.16838 1 14 23 1.11255 4 8043 5 8037 6 7400
164 1.89468 1.88931 8.24899 0 17 30 0.543427 4 1887 5 1549
821 4.12451 1.20734 7.85557 46 57 63 0.367345 4 5479 5 5396 6 1987
165 1.91238 1.92243 8.23418 1 17 29 0.772032 4 1888 5 1550
980 1.97019 3.98931 7.39115 1 11 19 0.293106 4 6112 5 4779
1489 -1.19818 2.43926 9.86628 20 32 41 0.378095 4 8016 5 8018 6 7388
166 1.98697 1.93738 8.20125 2 23 40 1.02849 4 1891 5 1754
1332 0.683255 3.83977 6.87703 88 112 116 0.199947 4 7433 5 7639 2 6683
167 1.98697 1.93738 8.20125 2 23 40 1.02849 4 1892 5 1755
168 3.22317 1.95577 7.80483 31 49 61 0.0624184 4 1906 5 1767
825 -6.30584 1.52827 15.7366 108 133 138 0.0769041 4 5515 5 5225
290 0.730889 3.49105 6.97731 19 38 45 0.627481 4 2781 5 4617 6 2644
1342 2.6449 3.7542 6.18349 68 78 87 0.379394 4 7459 5 7248 2 6693 1 9554 3 5180
169 3.87135 1.88015 7.66729 0 11 19 0.219292 4 1913 5 4109
984 2.63973 3.70655 6.1963 0 2 9 0.647267 4 6123 5 5989 2 3207
1851 -0.877626 2.0698 9.76606 20 33 49 0.115729 4 7662 2 7243 1 10157
170 3.83258 1.95111 7.64464 0 8 18 0.186743 4 1914 5 4110
1119 -1.44628 2.45867 10.0688 135 163 171 0.487757 4 6607 5 7500
300 1.1262 3.39086 6.79744 89 104 111 0.391182 4 2799 5 4620
2010 -0.127532 2.20628 8.80274 206 220 229 0.275938 2 8454 1 11755 3 7924
171 3.87607 2.13047 7.58027 2 24 27 0.197211 4 1934 5 2069
1503 -0.81456 3.82619 7.7368 105 133 137 0.273847 4 8108 5 8085 6 7317
172 4.51535 1.84969 7.59145 1 5 9 0.34135 4 1943 5 1799
829 -2.25545 1.78585 11.2173 24 49 61 0.672985 4 5525 5 6298 6 6976
1984 -1.4023 3.59558 9.66311 179 194 206 0.555617 2 7879 1 10286 3 7044
1105 2.46839 1.88604 8.0474 86 119 136 1.52062 4 6568 5 6455 6 3985 2 6360 1 6974
294 0.548674 4.04692 8.03182 27 44 52 0.312311 4 2786 5 2675
173 4.57831 1.88511 7.54189 54 57 62 0.385087 4 1949 5 1801
988 3.93086 3.87757 6.90166 35 39 42 0.456468 4 6130 5 5991 2 5457 1 4543
1497 0.290555 2.59403 8.73286 4 6 19 0.306788 4 8045 5 8039 6 7273 2 8207 1 11453 3 7594
174 4.70801 1.92033 7.52723 28 31 36 0.105157 4 1953 5 2085
288 0.271655 4.00492 8.20142 26 39 47 0.260128 4 2778 5 2666
1340 1.94736 4.19058 7.33169 47 56 58 0.300864 4 7456 5 7269
175 4.92971 1.92846 7.5342 43 51 54 0.178329 4 1961 5 2095
176 5.06328 2.04019 7.48174 40 44 47 0.277534 4 1970 5 2102
769 0.965115 0.456365 9.23411 3 10 23 0.209897 4 5283 5 5090 6 3426 2 4461 1 2011
298 0.694618 3.66126 6.91326 68 87 93 0.666101 4 2793 5 4707
1286 4.15592 2.43953 7.41781 41 51 61 0.0332444 4 7230 5 6563
177 -4.99686 3.23401 14.3422 100 124 130 0.30443 4 2035 5 4028
1795 3.6846 1.13256 7.99257 104 114 115 0.280031 4 5367 2 4622 1 8994
178 -4.23377 3.16947 14.086 97 118 123 0.141854 4 2037 5 4030
1191 -1.08655 -1.24512 11.4531 166 178 177 0.391568 4 6966 5 6805
308 2.71016 3.5068 6.24074 22 37 42 0.36087 4 2829 5 2744
179 -3.60797 3.11003 13.8118 94 124 126 0.525028 4 2043 5 4037 6 4870
180 -1.32437 2.4562 10.0002 178 200 206 0.226017 4 2047 5 4047
773 1.08433 0.609883 9.11294 146 174 177 0.101301 4 5287 5 5097 1 2319 2 1599
1992 2.04986 -0.284142 9.21757 111 125 140 0.302099 2 7066 1 10772 3 5804
1113 4.65948 1.88782 7.5454 0 2 7 0.0185112 4 6579 5 5584
302 1.18838 3.46756 6.77514 76 91 98 0.388453 4 2801 5 4621
181 -0.741611 2.29965 9.54475 0 11 19 0.062878 4 2052 5 4058
182 -0.860902 2.43572 9.60947 181 199 206 0.451563 4 2054 5 5544 6 3864
296 0.721708 3.6054 6.94143 37 56 62 0.941052 4 2790 5 4706 6 2741
1284 0.978803 2.36466 8.4565 2 13 17 0.247609 4 7226 5 7069 6 6425
183 -0.860902 2.43572 9.60947 181 199 206 0.451563 4 2055 5 5545 6 3865
184 -0.815087 2.44262 9.5724 2 13 16 0.15714 4 2056 5 5547
777 3.81698 0.528658 8.20113 100 133 140 0.2977 4 5299 5 5195
306 2.21734 3.45427 6.38951 0 17 24 0.0379436 4 2817 5 2727
1294 0.170231 2.67058 8.75965 95 125 132 0.382065 4 7278 5 7535 2 7295 1 10249 3 7001
185 -0.96577 2.67074 9.58372 139 158 167 0.346687 4 2061 5 4195 6 5104
1803 3.08911 2.22453 7.73001 75 83 94 0.194387 4 5741 2 4945 1 7137 3 4761
186 -0.96577 2.67074 9.58372 139 158 167 0.346687 4 2062 5 4196 6 5105
1199 1.02444 0.334541 9.23424 6 30 37 0.77138 4 6996 5 6869 6 5729 2 7104 1 10801
316 0.34287 4.2904 8.06765 29 37 41 0.344424 4 2883 5 2812
187 -0.528719 2.3395 9.34862 128 138 148 0.2311 4 2067 5 1703
188 -0.528719 2.3395 9.34862 128 138 148 0.2311 4 2068 5 1704
781 4.0156 0.594456 8.14245 8 21 30 0.570702 4 5312 5 3555 2 6186
2000 2.1854 -0.234867 9.13984 175 197 218 0.59232 2 7699 1 11315 3 7448
1185 -1.61301 5.00352 9.15457 0 3 6 0.152578 4 6888 5 7255
310 -3.23031 4.66186 8.74416 35 46 43 0.0886306 4 2846 5 4734
189 -0.478319 2.34958 9.33927 3 10 21 0.508221 4 2069 5 4062 6 3875
190 0.249744 2.26509 8.81967 73 95 107 0.201433 4 2089 5 1729
304 1.95276 3.83293 7.49195 0 9 17 0.113476 4 2810 5 2714
1292 -0.0852766 2.68814 8.58747 144 164 171 0.0926409 4 7274 5 7063
191 0.791528 2.25735 8.66856 1 11 22 0.526062 4 2093 5 4086
1574 -0.606409 1.63034 9.78013 21 31 43 0.502545 4 8356 5 8309
192 0.961504 2.26027 8.52905 4 13 17 0.0096971 4 2099 5 1742
849 4.04239 1.532 7.73698 30 53 61 0.39202 4 5565 5 3988
378 1.17011 0.130049 9.25397 1 15 29 0.0844749 4 3464 5 3239 6 818
1366 -5.42091 0.274171 16.8667 254 255 255 1.01508 4 7569 5 7693 6 7335
193 0.812486 2.39724 8.53364 0 5 16 0.50868 4 2103 5 1987 6 2082 1 3565
1875 0.362402 2.02149 8.9273 6 18 29 0.0911539 6 7046 2 7818 1 10937 3 6109
194 0.988472 2.44895 8.47124 94 105 109 0.253579 4 2108 5 2002
1271 -4.7741 3.16029 14.2289 94 122 125 0.279973 4 7210 5 7495
324 2.18684 3.55591 6.37438 73 98 103 0.426465 4 2920 5 2732
195 0.988472 2.44895 8.47124 94 105 109 0.253579 4 2109 5 2003
196 2.03902 2.24113 8.06168 2 21 36 0.0478275 4 2119 5 2033
853 -6.31248 2.45873 15.4861 12 41 46 0.0173515 4 5605 5 5417
1257 -1.41309 2.25574 10.1145 156 191 195 0.0569322 4 7175 5 6979
382 2.3534 0.149608 8.74344 144 178 190 0.280391 4 3472 5 5110 2 4323 1 6278
197 2.03902 2.24113 8.06168 2 21 36 0.0478275 4 2120 5 2034
198 1.77815 2.42864 8.08456 47 77 88 0.703643 4 2125 5 2024 6 2222
376 0.39284 0.195127 9.64293 0 10 24 0.355301 4 3459 5 394
1573 -0.594926 1.2642 9.86624 14 28 40 0.900804 4 8352 5 8181 6 7366
1364 1.07508 0.538724 9.11413 143 173 181 0.274962 4 7559 5 7359 6 6676
199 1.77858 2.46027 8.06363 117 147 158 0.00857112 4 2126 5 2025
1582 3.70151 2.08372 7.6439 78 105 116 0.366129 4 8369 5 8042 2 8635
200 1.92243 2.46762 8.01651 42 64 77 0.0796082 4 2129 5 2030
857 -3.74854 2.47891 14.0922 2 15 21 0.342023 4 5616 5 5441 6 5633
322 1.0956 3.85132 6.66456 83 92 98 0.266737 4 2910 5 4777
1374 -5.15431 1.6741 14.9689 9 13 17 0.246806 4 7612 5 7393
201 2.09585 2.24801 8.03544 4 26 45 0.964691 4 2130 5 2036
1883 0.100981 1.11728 9.43576 13 26 39 0.326194 4 7945 2 8154 1 10865 3 7502
202 3.14773 2.36038 7.63484 38 60 73 0.205087 4 2142 5 2050
1279 -0.588302 2.5572 9.31761 13 26 34 0.527344 4 7221 5 7507
332 2.02614 4.39724 7.22178 52 60 62 0.345428 4 2979 5 2915
203 3.772 2.18886 7.52705 34 54 65 0.33319 4 2150 5 2071
204 3.6504 2.30247 7.53188 13 32 46 0.349716 4 2153 5 2070
861 -1.39542 2.02989 10.2092 0 13 20 0.115644 4 5623 5 6371 6 6727
1265 3.87803 1.90275 7.66026 5 22 30 0.335472 4 7189 5 7031 2 7259
326 2.12788 3.67813 6.33744 7 35 36 0.0828833 4 2926 5 2858
205 4.24096 2.25261 7.47097 19 28 34 0.109542 4 2161 5 2083
206 -6.42634 3.67121 15.0571 0 12 17 0.467851 4 2227 5 1846
320 0.729151 3.78061 6.86639 87 110 116 0.42887 4 2890 5 2838
1581 1.97711 2.03425 8.15826 56 69 85 0.238977 4 8366 5 8209 2 8626 1 11760 3 8198
1372 -0.557477 1.41142 9.80251 124 151 160 0.289134 4 7587 5 7727 6 6991 2 7174
207 -4.61482 3.59524 14.141 110 137 139 0.1512 4 2242 5 4162
1590 4.12819 2.5752 7.3992 68 87 94 0.735485 4 8386 5 8221 6 7101 2 8760
208 -2.40116 3.06553 10.8222 4 33 41 0.0907218 4 2248 5 4172
929 -6.90992 4.465 15.0553 0 12 20 0.444569 4 5866 5 6525
330 -2.68539 4.91169 8.86793 9 23 23 0.156311 4 2957 5 5948
1446 2.73609 3.2183 6.33463 68 86 93 0.0586333 4 7828 5 7608
209 -2.10195 2.84922 10.5863 2 14 25 0.784076 4 2253 5 5628 6 6752
1955 0.0258491 1.15219 9.1821 0 9 22 0.129572 2 6225 1 8971 3 4348
210 -1.62088 2.91176 10.057 4 18 26 0.161442 4 2255 5 4178 6 5899
1223 -4.416 1.27287 14.9193 113 141 144 0.611417 4 7073 5 6909 2 7134 1 10021
340 -1.12196 -1.49492 11.6154 158 169 175 1.56394 4 3260 5 4921
549 -3.94366 2.56641 14.2907 105 134 136 0.151164 4 4139 5 3915 6 5632
211 -1.40209 2.88273 9.89664 163 188 195 0.423535 4 2260 5 5631
212 -1.25755 2.77463 9.77748 21 49 58 0.302444 4 2261 5 4189 6 5099
933 0.723844 3.05812 8.30749 156 167 173 0.238121 4 5891 5 5776 6 5291 2 2750
1273 -3.97668 2.90162 14.1197 66 96 104 0.0524933 4 7214 5 7498
334 2.22283 3.78942 6.26127 2 13 17 0.14171 4 2983 5 2864
213 -1.41457 2.94759 9.85087 165 185 196 0.0106222 4 2263 5 4183
214 -1.44559 3.0464 9.85667 172 191 200 0.253028 4 2266 5 4182 6 5157
328 3.92864 3.83711 6.91343 10 14 17 0.508075 4 2952 5 2874
1589 -0.172781 2.59162 8.69403 0 10 20 0.156812 4 8385 5 8325
1444 -0.3207 3.55359 7.52851 103 128 132 0.470947 4 7814 5 7890 6 7120
215 -0.89832 2.69556 9.52964 165 184 191 0.180347 4 2271 5 4197 6 5107
1598 -0.914966 -1.32282 11.3935 92 111 115 1.25671 4 8444 5 8279
216 -0.89832 2.69556 9.52964 165 184 191 0.180347 4 2272 5 4198 6 5108
937 1.86681 2.92224 7.83673 52 74 87 0.133785 4 5900 5 5784
1571 2.28516 0.83153 8.51991 105 138 155 0.645992 4 8347 5 8175 6 7216 2 8605 1 11969 3 8165
338 1.85596 4.50064 7.22546 32 37 41 0.488608 4 3006 5 4871
1454 3.81404 3.63338 6.99638 6 11 15 0.184603 4 7861 5 7625
217 -0.727233 2.69112 9.35289 6 12 21 0.152749 4 2276 5 4200
1963 -0.0318948 2.19448 8.81996 102 116 125 0.23994 2 6338 1 9139 3 6104
218 -0.866012 2.80426 9.46915 126 148 153 0.0637754 4 2277 5 1938
1231 4.19374 1.36585 7.81187 3 6 15 0.546523 4 7089 5 6401
348 1.16899 -0.499036 9.73389 107 131 135 0.280642 4 3307 5 3136 2 906 1 1391
557 -0.866324 2.14872 9.72956 160 178 188 0.200591 4 4160 5 3937 6 5045
219 -0.787939 2.75634 9.39862 0 14 18 0.285781 4 2278 5 4201 6 3962
220 -0.769808 2.9401 9.30945 0 11 18 0.297157 4 2287 5 5712 6 5948
941 1.13946 3.13407 7.72102 56 86 96 0.878642 4 5942 5 5780 1 4104
1217 3.37904 0.791063 8.19945 106 134 145 0.166951 4 7030 5 6929 2 7749 1 10116
342 3.42181 -0.78344 9.03563 115 138 146 0.00236259 4 3272 5 303
221 -0.597433 2.76947 9.27292 127 141 150 0.537785 4 2288 5 1949 6 3963
222 -0.597433 2.76947 9.27292 127 141 150 0.537785 4 2289 5 1950 6 3964
336 2.24113 3.76542 6.26794 1 9 14 0.124062 4 2985 5 4789
545 -5.21906 2.68886 14.7202 96 121 125 0.106686 4 4133 5 5433
1597 -0.914966 -1.32282 11.3935 92 111 115 1.25671 4 8443 5 8280
1452 1.15222 3.45045 6.80096 2 8 18 0.489625 4 7854 5 7600 2 6632
223 0.23129 2.72861 8.72179 122 140 154 0.0942618 4 2305 5 1982 6 4046
224 0.307284 2.83582 8.63606 132 149 156 0.0694597 4 2308 5 4352
881 -5.21124 3.31652 14.3814 0 8 9 0.0519259 4 5704 5 6417
282 -0.739173 3.78366 7.70133 9 38 42 0.442455 4 2767 5 5844
1398 -0.841032 1.95755 9.75828 147 178 186 0.278746 4 7661 5 7770 6 7011 2 7812 1 10156
225 0.955121 2.65837 8.35955 145 163 173 0.221488 4 2317 5 2008
1907 0.0705427 1.14507 9.30965 1 4 15 0.236167 2 4588 1 2619 3 1801
226 0.852973 2.82161 8.33805 3 12 18 0.0332603 4 2323 5 2233
1175 2.68907 3.5681 6.2392 54 67 73 0.364751 4 6873 5 5986 2 5444 1 4727
356 -2.15111 -0.951128 12.6265 86 89 83 0.775061 4 3378 5 3075
227 1.00324 2.69952 8.36888 1 7 11 0.650144 4 2325 5 2234
228 1.95419 2.63462 7.92031 70 88 98 0.0475223 4 2348 5 2271
885 -1.36004 2.70976 9.89385 0 11 18 0.0771362 4 5711 5 6487 6 6780 2 4911
1161 -0.315454 3.75706 7.44146 53 72 79 0.340459 4 6823 5 7205 6 6551 2 5297 1 7687
286 0.461355 3.94887 8.1015 14 31 39 0.433529 4 2775 5 4695
229 1.94044 2.66771 7.91614 11 29 39 0.00919152 4 2349 5 2254
230 1.91094 2.72113 7.90621 62 80 90 0.165601 4 2351 5 2262
280 -0.673324 3.74407 7.68116 101 126 131 0.0413594 4 2764 5 4595
1396 -1.88644 2.04582 10.5438 108 141 150 0.964208 4 7659 5 7463
231 3.90363 2.50369 7.44571 1 6 13 0.219293 4 2358 5 4387
232 4.73275 2.73959 7.24234 52 59 63 0.153325 4 2367 5 2410
889 -0.995439 2.37893 9.71956 150 175 182 0.160364 4 5716 5 6439 6 6368
354 3.59264 -0.61014 8.90341 80 103 109 0.243723 4 3330 5 3170 2 923
1406 0.365826 2.02086 8.92656 2 17 30 0.264357 4 7670 5 7778 6 7045 2 7819 1 10938 3 6110
233 -6.9834 4.5577 15.159 120 144 150 0.588285 4 2397 5 4281
1915 1.91374 2.97657 7.80776 186 198 210 0.53347 5 2405 6 4228 1 4113 3 2574
234 -4.15816 4.13852 12.5529 42 69 64 0.3685 4 2420 5 2322
1183 -2.11637 4.69926 8.00527 11 16 12 0.11555 4 6886 5 6746
364 1.00812 -0.438141 9.83513 137 156 160 0.535106 4 3396 5 4974
235 -3.70894 4.14336 13.5014 101 129 138 0.162829 4 2425 5 5702
236 -0.859368 3.18684 9.23353 158 171 177 0.420152 4 2440 5 4327
893 0.878218 2.25393 8.55419 154 180 182 0.381864 4 5731 5 6447 6 5171
1169 -1.61247 4.93352 9.17657 22 30 32 0.506764 4 6850 5 7229 2 5294
358 -2.1575 -0.889032 12.6475 205 191 164 0.297967 4 3381 5 3114
237 -0.859368 3.18684 9.23353 158 171 177 0.420152 4 2441 5 4328
238 -0.761178 3.31925 9.12589 57 71 78 0.266952 4 2452 5 2351 6 2322
352 2.22703 -0.401802 9.21316 123 143 141 0.610025 4 3319 5 3160 6 3272 2 4085 1 5930 3 1221
1404 0.328538 1.91543 8.98112 114 153 161 0.374448 4 7668 5 7777 6 6765 2 7816 1 10936 3 6952
239 -0.23762 3.05639 8.50261 6 26 29 0.717922 4 2456 5 4348 6 5277
240 -0.23762 3.05639 8.50261 6 26 29 0.717922 4 2457 5 4347 6 5276
833 -0.813508 1.71376 9.86343 7 23 33 0.168785 4 5534 5 5343 6 5767
362 0.603679 -0.558837 10.0813 82 101 107 0.378705 4 3393 5 3132 2 900 1 1382
1350 2.52009 -0.398619 9.13344 85 106 109 0.231795 4 7522 5 7347
241 0.100719 3.17903 8.61931 87 98 103 0.062963 4 2469 5 4456
1859 0.225605 3.12011 8.54418 141 151 153 0.317092 4 7771 2 7369 1 10295
242 0.100719 3.17903 8.61931 87 98 103 0.062963 4 2470 5 4457
1255 -5.54225 2.52758 14.9619 126 165 164 0.122223 4 7167 5 7454
372 3.88114 -0.0515929 8.45259 141 165 171 0.0746385 4 3420 5 3386
243 0.194096 2.90224 8.62876 88 117 124 0.12751 4 2471 5 2214
244 0.154113 2.99161 8.66616 120 144 148 0.147994 4 2472 5 2221
837 0.189601 1.6085 9.21674 79 102 112 0.236201 4 5542 5 6317 2 4709
1177 3.6305 3.92709 6.93414 30 35 39 0.305043 4 6876 5 5990 2 5453 1 7733 3 5187
366 1.04733 -0.418833 9.77458 106 125 129 0.00108994 4 3398 5 4975
245 0.370627 3.06462 8.5093 137 157 160 0.0549928 4 2475 5 4463
246 0.78721 3.09164 8.26197 123 134 140 0.343155 4 2476 5 4467 6 4222
360 -0.941742 -0.482528 11.2658 251 255 255 0.153808 4 3387 5 6824
1348 -1.2782 -1.40182 11.527 254 254 250 0.859187 4 7519 5 7308
247 0.78721 3.09164 8.26197 123 134 140 0.343155 4 2477 5 4468 6 4223
248 0.891836 2.88923 8.29334 138 156 160 0.462276 4 2480 5 4360 6 2346
841 1.79566 1.53336 8.42205 4 17 33 0.109284 4 5550 5 5376 2 4732
370 3.32649 -0.219226 8.62427 89 119 129 0.17227 4 3417 5 433
1358 0.628385 0.203441 9.51992 15 26 38 0.476825 4 7548 5 7346 6 6646 2 8134 1 11342 3 7465
249 0.999975 2.87663 8.23903 1 8 15 0.238258 4 2483 5 4362 6 2356
1867 1.93025 0.255525 8.85698 79 107 132 0.16851 4 7551 2 7725 3 6824
250 0.999975 2.87663 8.23903 1 8 15 0.238258 4 2484 5 4363 6 2355
1263 0.716739 2.02632 8.7271 130 159 167 0.121372 4 7185 5 6991
380 1.15245 0.21586 9.26169 0 5 18 0.0866942 4 3468 5 417
251 0.852197 3.00915 8.26222 1 9 14 0.575931 4 2489 5 2384 6 2349
252 1.66173 2.81143 7.96985 24 46 59 0.0602341 4 2494 5 2260
845 3.58728 1.59074 7.83305 0 3 12 0.146507 4 5558 5 5498
1249 4.62246 1.626 7.74198 0 2 7 0.21607 4 7143 5 7032
374 -1.80989 -0.670396 13.4598 253 253 234 0.337433 4 3453 5 5007
253 1.73102 2.86441 7.96671 1 23 36 0.66738 4 2495 5 2398
254 1.62345 2.99505 7.90675 6 29 43 0.00724921 4 2499 5 4477
368 1.82484 -0.325984 9.36538 136 155 153 0.273562 4 3407 5 3158
1356 2.6455 -0.065985 8.7569 110 142 156 0.663903 4 7539 5 7348 6 6286 2 7067 1 9990
255 1.92847 2.8736 7.82381 58 79 90 0.146401 4 2503 5 2401
257 1.98356 2.89317 7.81924 110 134 144 0.506268 4 2505 5 2407 1 3869
688 1.84482 3.91205 7.46229 6 19 27 0.386021 4 4795 5 4719
1714 -0.191924 2.81785 8.58884 130 160 160 0.254438 5 7554 6 6826 2 7321 1 10292 3 6167
259 1.77028 3.06983 7.82966 0 22 36 0.0816022 4 2507 5 2404
261 2.69003 2.72191 7.29133 48 76 90 0.220028 4 2511 5 4498
692 2.241 3.42344 6.40319 0 16 21 0.175677 4 4808 5 2724
263 4.83022 2.87488 7.19501 43 46 51 0.414863 4 2516 5 2503
265 -5.6938 4.58864 13.215 95 116 115 0.331076 4 2539 5 5752
696 3.59533 3.78087 6.99928 0 3 11 0.150894 4 4823 5 4724
1722 0.762128 1.29584 9.01035 90 123 130 0.710716 4 8206 2 8157 1 11386 6 7014 3 7529
267 -1.03825 3.45775 9.26897 0 11 18 0.218204 4 2571 5 4448
269 0.302724 3.28471 8.46429 105 112 120 1.30555 4 2596 5 2374 6 2462
700 -0.76151 4.14188 7.58642 88 115 119 0.881323 4 4855 5 6726
271 0.644701 3.22051 8.28183 6 13 22 0.0992684 4 2601 5 2380
273 -0.640712 3.58547 7.7356 61 81 88 0.463334 4 2679 5 4597
640 -1.56437 3.33475 9.81608 4 18 31 0.311234 4 4535 5 6542
1666 1.91778 1.68009 8.32247 0 26 36 0.191718 4 5551 6 3899 2 4738 3 2052
275 2.21814 3.26648 6.47233 9 29 36 0.386812 4 2706 5 4631
277 -3.0983 4.62439 9.42653 98 129 134 0.693632 4 2746 5 5874
644 -0.801805 3.13781 9.26219 0 8 15 0.405237 4 4539 5 5714 6 5217 5 4326
279 -0.732665 3.73841 7.71098 115 144 148 0.441421 4 2763 5 5842 6 5386
281 -0.739173 3.78366 7.70133 9 38 42 0.442455 4 2766 5 5843
648 -0.466781 3.01312 9.05817 0 5 8 0.208633 4 4545 5 5717 6 5982
1674 0.608709 1.47426 8.9968 109 140 145 0.720099 5 5363 6 4983 2 4713
283 -0.439412 3.84435 7.4616 33 55 61 0.0379153 4 2769 5 5893
285 0.333554 3.96801 8.17895 9 26 34 0.0394048 4 2774 5 2670
652 0.767171 3.01232 8.30739 0 4 10 0.229164 4 4555 5 4465 6 4135
287 0.189498 4.06486 8.22469 39 52 60 0.135575 4 2777 5 2665
289 0.668027 3.48685 7.0125 104 123 130 0.038492 4 2780 5 2573
592 -1.34968 2.4177 10.017 4 11 21 0.20992 4 4298 5 5540 6 5854
1618 0.66853 -0.475959 10.0356 89 108 112 0.269452 4 8519 5 8407 6 7582
291 0.659552 3.55088 6.9888 30 49 56 0.482331 4 2783 5 4616 6 2739
1991 0.828854 -0.218883 9.78921 187 205 219 0.135699 2 8120 1 10770 3 6781
293 0.489064 4.04581 8.08394 21 35 44 1.05126 4 2785 5 4699
596 -1.03663 2.32685 9.75655 0 9 18 0.333499 4 4306 5 6431
295 0.548674 4.04692 8.03182 27 44 52 0.312311 4 2787 5 2676
297 0.677054 3.69437 6.93482 27 46 52 0.493247 4 2792 5 2692
600 -0.536593 2.37904 9.35364 0 2 12 0.474457 4 4317 5 4060 6 3874
1626 1.42714 3.08192 7.715 12 26 39 0.350652 4 8548 5 8391
299 0.779577 3.68714 6.8852 9 28 34 0.203911 4 2798 5 2698
1999 2.37305 2.79962 7.70253 141 157 173 0.188662 2 7864 1 10996 3 7057
301 1.04022 3.50081 6.82418 75 90 97 0.487474 4 2800 5 2699
604 2.05108 2.31292 8.00669 1 22 37 0.178081 4 4335 5 4239
303 1.05537 3.55709 6.80272 8 27 31 0.790499 4 2802 5 2700
305 2.21734 3.45427 6.38951 0 17 24 0.0379436 4 2816 5 2726
672 -0.762087 3.93316 7.64767 89 114 119 0.33411 4 4769 5 5891 6 5445
1698 -0.825777 3.54783 7.86055 124 144 142 0.572538 4 5989 5 5810 6 6063
307 2.68083 3.51307 6.26605 55 68 77 0.406516 4 2822 5 2741
2007 -0.862375 -1.60427 11.3767 255 253 255 1.57452 2 8368 1 11648 3 8099
309 -3.49548 4.72495 8.37405 42 52 53 0.80502 4 2843 5 4732
676 0.0808364 3.97856 8.31691 49 60 66 0.0148473 4 4776 5 5902
311 -1.44295 4.61707 9.18263 11 22 23 0.318495 4 2868 5 5884
313 -1.6743 4.98603 9.26311 22 30 32 0.038616 4 2871 5 4748
680 0.0294379 4.09182 8.3014 40 53 59 0.27523 4 4781 5 5899 2 3006
1706 -0.61696 2.86189 9.2454 8 9 15 0.232158 5 6495 6 6419 2 5025 1 7100
315 -0.290313 3.90542 7.38229 87 106 113 1.45547 4 2881 5 4684
317 0.445153 4.23125 7.97996 0 8 12 0.0270795 4 2884 5 2815
684 0.36161 3.9431 8.19211 33 50 58 0.0875091 4 4786 5 4693
319 0.659196 3.71162 6.92816 83 106 112 0.423824 4 2889 5 4712
321 1.0956 3.85132 6.66456 83 92 98 0.266737 4 2909 5 4776
752 3.87594 0.295234 8.31134 0 7 17 0.256481 4 5228 5 3529
1778 0.775692 0.248277 9.40018 182 197 218 0.193824 6 4701 2 4307 1 8758 3 4214
323 1.19072 3.78654 6.65128 2 11 19 0.515515 4 2911 5 2850
325 2.12788 3.67813 6.33744 7 35 36 0.0828833 4 2925 5 2857
756 3.98997 0.437275 8.20659 110 128 138 0.078173 4 5237 5 3546
327 2.73055 3.53555 6.22536 50 61 67 0.425195 4 2934 5 2746
329 3.92864 3.83711 6.91343 10 14 17 0.508075 4 2953 5 2873
760 4.26937 0.171425 8.28666 109 122 130 0.465116 4 5244 5 3536
1786 3.47981 0.757133 8.24118 63 75 91 0.675783 4 5295 2 4474 1 2335
331 -0.368344 4.21409 7.26142 0 10 12 0.441183 4 2959 5 4825
333 2.22283 3.78942 6.26127 2 13 17 0.14171 4 2982 5 2863
764 0.0109024 0.743026 9.3363 121 146 156 0.512866 4 5272 5 6170 2 4449
335 2.24113 3.76542 6.26794 1 9 14 0.124062 4 2984 5 4788
1062 1.71633 1.28472 8.54352 74 90 100 0.230767 4 6446 5 6328 2 6282
337 2.20281 3.84161 6.25005 72 95 98 0.442727 4 2987 5 2919
704 1.06956 3.85592 6.66868 0 7 11 0.337077 4 4871 5 4775
1730 1.83846 -0.615927 9.47313 98 117 132 0.638695 4 523 5 3153 2 915 1 1399
339 2.99905 -2.13712 9.5168 178 186 189 0.461905 4 3072 5 66
341 2.3458 -0.827957 9.37724 139 167 172 0.195681 4 3269 5 3080
708 2.03053 4.09781 7.31967 4 12 15 0.161813 4 4877 5 4783
1060 0.221743 1.39427 9.26019 0 12 25 0.175147 4 6440 5 6254 2 4706 1 2627
343 3.71816 -0.820859 9.00382 128 151 159 0.672869 4 3274 5 305
344 3.82913 -0.766502 8.94776 72 95 103 0.0930788 4 3276 5 309
553 -1.57184 2.22311 10.3012 0 14 20 0.121121 4 4150 5 5457 6 6337
1070 -5.03379 1.66509 15.1793 121 140 144 0.489058 4 6479 5 6908 6 6915
345 -0.999872 -1.33267 11.5928 52 64 61 0.513512 4 3300 5 3029
712 2.71104 3.74951 6.16641 29 42 46 0.622382 4 4890 5 2868
1579 -1.00802 2.00334 10.0125 121 151 159 0.691822 4 8364 5 8315
346 0.851191 -0.53529 9.94929 124 144 146 0.294047 4 3304 5 3134
1738 -0.700102 1.31942 9.94548 135 147 163 0.259775 4 5440 5 3643 2 1810 1 2601
347 1.24537 -0.606088 9.72274 140 164 168 0.420527 4 3306 5 3146 6 3093
349 1.78973 -0.637375 9.50696 102 129 137 0.561677 4 3309 5 4979 2 914 1 1398
716 1.93584 4.31771 7.27381 3 9 12 0.395569 4 4921 5 6006
1225 -1.02204 1.26541 10.2319 117 145 154 0.121366 4 7075 5 6917 6 6274
350 2.3733 -0.617854 9.31238 126 147 152 0.299902 4 3314 5 3162
1068 -6.14985 1.62689 15.6277 97 123 124 0.227273 4 6476 5 6900
351 2.35464 -0.506087 9.22829 131 151 150 0.231056 4 3318 5 3164 1 1409
353 2.65544 -0.712059 9.19944 81 102 105 0.518876 4 3320 5 3166 2 4083 1 5931
656 0.965559 2.88101 8.253 148 167 173 0.17285 4 4559 5 5736 6 4137
1682 -0.542234 3.4714 8.90847 0 7 11 1.01354 4 5926 6 5320 2 2738
355 4.06967 -0.677453 8.88863 73 98 105 0.0646602 4 3332 5 3257
357 -1.89045 -1.14785 12.5446 179 205 206 0.62012 4 3379 5 3077
660 1.84038 3.07144 7.79364 104 133 142 0.448472 4 4568 5 5786 6 2494
359 -0.941742 -0.482528 11.2658 251 255 255 0.153808 4 3386 5 6825
361 0.351962 -0.240903 10.1239 86 113 114 0.418118 4 3391 5 263 1 1711 2 4186
664 -5.63613 4.63706 13.1004 2 13 14 0.139146 4 4606 5 5753
1690 0.270064 1.35957 9.26423 128 156 160 0.473821 5 6253 6 5821 2 4710 1 8977 3 1996
363 0.997064 -0.419578 9.77214 137 156 160 0.529665 4 3395 5 4973 6 4600 2 4189 1 5921
365 1.04733 -0.418833 9.77458 106 125 129 0.00108994 4 3397 5 4976
668 -0.868395 3.52343 7.87264 43 63 70 0.746055 4 4686 5 7149 6 4252
367 1.14682 -0.407441 9.74258 144 168 172 0.0489958 4 3400 5 3142
369 2.40082 -0.135438 8.86224 91 119 128 0.228084 4 3410 5 5035 2 4196 1 8673 3 4109
736 4.14442 0.0152739 8.34154 119 138 145 0.469378 4 5171 5 3396 2 4204 1 8786
1762 -0.886337 2.90286 9.4881 7 13 28 0.357707 4 5812 2 2586 1 3540
371 3.86365 -0.0421476 8.42307 141 165 171 0.360638 4 3419 5 3385 1 6117
373 4.03597 0.133813 8.31104 111 136 143 0.42059 4 3426 5 3395 1 6291
740 0.435834 0.299579 9.57786 174 194 203 0.091809 4 5202 5 5015 1 6260
375 -0.720936 -0.246645 10.9033 149 175 176 0.228442 4 3454 5 3121
377 0.542501 0.261796 9.52988 2 10 21 0.109443 4 3461 5 3227
744 0.945122 0.370967 9.27039 7 11 23 0.307889 4 5212 5 5088 2 4316 6 4819
1770 2.69669 2.73182 7.2817 75 88 105 1.28209 6 4231 2 2786 1 4116
379 0.945844 0.276085 9.31471 0 5 17 0.479524 4 3465 5 3351 6 3253 1 2000
381 1.20958 0.293984 9.16519 3 16 28 0.588798 4 3469 5 5098
748 2.49251 0.381849 8.62691 116 147 167 0.438056 4 5220 5 3382 2 1347 1 6280
383 2.4002 0.145167 8.75781 104 138 150 0.317182 4 3473 5 582 2 1345 1 2026
384 2.27541 0.343257 8.71804 112 145 164 0.585791 4 3475 5 3379 2 4326 1 2025
529 3.71075 1.68662 7.79457 7 25 33 0.000399364 4 4050 5 3975
1555 4.32817 4.09208 6.76778 6 10 11 0.324722 4 8295 5 7929
386 2.7718 0.12816 8.63769 89 121 132 0.101021 4 3477 5 3380
388 3.52473 0.44467 8.31768 106 134 145 0.433792 4 3483 5 3526 2 4335
533 4.84714 1.76372 7.60101 50 49 54 0.267558 4 4072 5 1806
390 3.66556 0.244058 8.38417 119 137 149 0.132112 4 3486 5 593
392 3.61987 0.430421 8.3093 1 15 26 0.118505 4 3489 5 3527 2 4338
537 -6.58358 2.73576 15.2716 1 18 24 0.133691 4 4119 5 3897
1563 0.184221 0.185157 9.69171 22 44 58 1.40808 4 8333 5 7962
394 4.0783 0.316186 8.23567 34 47 56 0.439661 4 3495 5 804 1 2054
396 3.93947 0.437402 8.21365 33 54 63 0.398484 4 3499 5 3544
541 -6.00777 2.67815 15.0382 3 15 18 0.342313 4 4126 5 5421 3 1962
398 4.29259 0.315638 8.23007 89 102 110 0.258358 4 3502 5 824
1052 -5.72944 1.35876 15.5923 83 104 109 0.600911 4 6425 5 6906
399 4.43874 0.162396 8.23096 35 48 56 0.0625604 4 3504 5 822
400 4.42577 0.294601 8.19066 24 37 45 0.184271 4 3506 5 827
609 3.78325 2.31681 7.50305 40 58 70 0.427441 4 4354 5 4255 2 4961
1635 2.05971 -1.23266 9.74578 255 255 255 1.00792 4 8603 5 8432
402 4.47693 0.37845 8.15964 20 33 41 0.113619 4 3512 5 3570
404 -0.839052 0.300562 10.5277 37 60 77 0.170793 4 3542 5 3209
613 4.27773 2.27867 7.44052 0 6 9 0.493445 4 4361 5 5673 2 6430
406 -0.841309 0.445047 10.3976 166 196 206 0.376838 4 3544 5 3312 6 4582
408 0.382332 0.416878 9.56259 149 170 180 0.253261 4 3554 5 3338 6 3244 2 1321
617 -0.727752 2.7373 9.37045 149 159 168 0.188942 4 4427 5 5643 6 5946 2 2415 1 3542
1643 4.23036 -1.33116 9.12924 255 255 255 0.577215 4 8624 5 8435
410 0.286369 0.495961 9.61052 28 52 64 0.0903098 4 3556 5 3337
412 0.791659 0.459394 9.31725 2 10 23 0.388089 4 3565 5 3347 6 3421 2 4454 1 6269
621 0.103804 2.90688 8.70315 100 118 125 0.145451 4 4442 5 5721
414 0.673552 0.715571 9.27242 84 117 122 0.42555 4 3568 5 5180
416 0.88587 0.717391 9.1681 0 6 17 0.0771404 4 3573 5 3501 6 1309
561 -0.457555 2.17184 9.40752 0 8 13 0.149676 4 4167 5 3944 6 5053
1078 0.459117 1.68724 9.00822 141 167 172 0.0851074 4 6494 5 6321
417 0.88587 0.717391 9.1681 0 6 17 0.0771404 4 3574 5 3502 6 1310
720 3.35187 -0.867846 9.0691 130 147 157 0.420052 4 5085 5 4991
1587 3.90075 2.36523 7.46413 76 97 108 1.53634 4 8382 5 8062 6 6847 2 8637
418 0.922615 0.696895 9.15429 186 204 214 0.182883 4 3575 5 3503 6 1311
1239 -1.38717 1.69077 10.3221 18 32 43 1.12534 4 7124 5 7423 6 7198 2 6258 1 6580
420 0.887951 0.756953 9.15526 192 212 223 0.160517 4 3577 5 3507 6 3567
565 2.84888 2.09491 7.48236 122 152 160 0.358169 4 4189 5 4098 2 2444
421 0.930377 0.773195 9.12348 0 8 18 0.149407 4 3578 5 5182 6 3568
724 2.60474 -0.48785 9.13715 124 145 148 0.22981 4 5115 5 4988
1233 -5.57412 2.0306 15.2973 3 19 23 0.00173605 4 7111 5 7411
422 1.06844 0.651632 9.11262 3 13 20 0.00284242 4 3579 5 3512
1076 0.226558 1.55425 9.20372 2 15 25 0.293515 4 6492 5 6946 2 6270 1 6774 3 4474
423 1.13046 0.604628 9.09283 0 9 12 0.256214 4 3580 5 3358 6 3435
424 1.13046 0.604628 9.09283 0 9 12 0.256214 4 3581 5 3359 6 3436
569 3.34009 2.05705 7.71851 86 108 121 1.03211 4 4200 5 4105 2 2457 4 4202
1595 -4.21451 4.66037 8.51118 5 3 1 0.589457 4 8415 5 8398
426 1.98651 0.518257 8.79275 1 5 20 0.488705 4 3591 5 780
1247 0.681449 1.8614 8.8165 80 105 112 0.463681 4 7135 5 7472 6 6403 2 7250 1 10209 3 6107
428 2.66312 0.680355 8.43872 120 149 163 0.185085 4 3594 5 782
573 3.95758 1.94058 7.62524 57 72 81 0.0929607 4 4212 5 1791
1241 -1.28054 1.71777 10.2256 172 197 204 0.137849 4 7126 5 7426 2 7202
430 3.31225 0.69477 8.25597 47 73 88 0.456137 4 3599 5 3521 2 1624
513 -1.054 1.88851 9.97829 0 9 16 0.352719 4 3995 5 5344 6 5806 2 2036
432 3.29289 0.873781 8.15631 37 67 73 0.862632 4 3601 5 3691 2 1861 1 2661
1539 1.69943 2.71691 8.00495 8 22 35 0.36676 4 8253 5 8220 2 8463 1 11478 3 7616
434 3.74144 0.726659 8.15516 1 15 23 0.258573 4 3607 5 1050 2 1638
436 3.95064 0.611726 8.14062 110 130 141 0.150961 4 3610 5 3694 2 1648
517 -0.655856 1.83056 9.66399 193 211 221 0.234231 4 4006 5 5353
438 -5.89717 0.662804 15.9022 91 92 96 0.146669 4 3640 5 5138
440 -1.25572 0.782911 10.6001 181 205 217 0.274822 4 3653 5 5149 6 5592
521 1.09434 1.57722 8.72258 166 186 193 0.323944 4 4021 5 3817 6 3783
1547 -4.29823 4.50583 8.80547 50 71 64 0.147944 4 8280 5 8247
442 -0.981615 0.787646 10.393 172 200 214 0.0322157 4 3656 5 5156
444 -0.771493 0.687084 10.2863 182 210 221 0.0362875 4 3661 5 3319
525 2.41892 1.66623 8.13625 123 156 173 0.514322 4 4032 5 5492 2 2282
446 -0.350441 0.969264 9.79356 157 186 200 0.0375832 4 3670 5 5171
1830 1.62358 0.760836 8.80388 1 10 29 0.109422 4 6365 2 6167 1 6446
448 0.130875 1.01719 9.44767 91 113 126 0.302105 4 3680 5 744 3 1795
593 -1.15058 2.49247 9.80315 1 6 15 0.378268 4 4300 5 6436 6 6756 2 2395
1619 0.697806 0.318372 9.41067 7 22 35 0.372423 4 8520 5 8369
450 0.466584 1.12613 9.29021 69 100 114 0.445794 4 3685 5 1003
452 0.823178 1.1382 9.02336 116 148 159 0.0992581 4 3691 5 3670 6 3672
597 -1.06844 2.61336 9.69642 167 190 198 0.0836676 4 4310 5 5543 6 5909
454 1.7228 1.16518 8.59261 84 92 103 0.202363 4 3700 5 3682
1838 -0.0617185 2.00222 8.85887 159 174 181 0.290627 5 6381 2 6335 1 6941 3 4617
456 3.71455 1.01411 8.02696 29 56 65 0.396237 4 3716 5 1305 1 2689
601 -0.536593 2.37904 9.35364 0 2 12 0.474457 4 4318 5 4059 6 3873
1627 1.59076 -1.81716 10.1752 142 167 171 0.323713 4 8571 5 8405 2 8889
458 3.64838 1.16888 7.99633 26 49 57 0.517172 4 3718 5 1307
460 3.87812 0.896351 8.05549 18 36 46 0.4729 4 3721 5 1065
605 1.96888 2.35032 8.0435 0 10 24 0.23352 4 4337 5 4235
462 3.9012 0.946305 8.02767 17 35 45 0.244692 4 3724 5 1068 1 2693
1846 1.18631 3.84168 6.62938 112 121 120 0.654762 5 7642 2 6688 1 9542
464 3.91126 0.984001 8.01012 89 107 117 0.193231 4 3726 5 3851
673 -0.466823 3.89007 7.49223 89 114 119 0.217918 4 4771 5 5894
1699 1.21017 3.41139 6.78494 66 84 84 0.418765 4 7410 6 6102 2 6634
466 4.07421 1.00214 7.97632 1 8 18 0.107853 4 3728 5 3853
468 4.0144 1.06241 7.97287 0 8 14 0.0346296 4 3732 5 3855
677 0.0808364 3.97856 8.31691 49 60 66 0.0148473 4 4777 5 5903
470 3.93313 1.19853 7.92657 50 60 69 0.0990116 4 3734 5 1326
1854 3.15237 2.23514 7.70853 29 39 49 0.213227 4 7229 2 7301 1 10259
472 4.11989 1.16031 7.89025 0 2 5 0.108209 4 3745 5 1335
681 0.0302025 4.09389 8.31102 40 53 59 0.244291 4 4782 5 5900
1707 -0.712557 3.11722 9.20049 2 10 13 0.743334 5 6547 6 6439 2 2587
474 -5.99394 1.20863 16.297 87 108 113 1.80282 4 3787 5 5228 6 4468
476 -5.63957 1.21444 15.5601 128 149 152 0.393968 4 3789 5 5229 2 1533 1 1690
685 0.36161 3.9431 8.19211 33 50 58 0.0875091 4 4787 5 4692
478 -2.12884 1.19588 11.3638 4 36 46 0.492957 4 3794 5 5146
480 -1.01062 1.38506 10.1834 162 186 196 0.148319 4 3799 5 3642
625 0.452604 2.76355 8.57678 145 161 168 0.213342 4 4447 5 5723 6 5229
1651 0.741075 2.11199 8.68691 58 73 78 0.0714383 4 4176 5 1737 6 1941
482 -0.531778 1.20177 9.8856 0 22 35 0.221534 4 3804 5 5255 6 4804
484 0.581842 1.30536 9.06797 97 127 138 1.40875 4 3818 5 3666 6 3671 2 1831 1 2636 1 2639
629 0.90167 2.63673 8.38455 147 164 171 0.150702 4 4455 5 5661 6 5235
486 0.875883 1.19901 8.98331 82 108 126 0.133234 4 3822 5 3673
488 1.69681 1.44333 8.50079 104 126 137 0.166211 4 3834 5 3827
633 1.65153 2.71225 8.02931 30 50 61 0.0660589 4 4464 5 2249
490 1.77802 1.48506 8.47772 99 121 132 0.457878 4 3837 5 3836
492 3.41884 1.2402 8.00054 36 68 79 0.287605 4 3846 5 3845 2 2091
637 -7.5274 4.29832 15.6025 122 150 155 0.826414 4 4506 5 4145
494 3.81829 1.27105 7.89833 52 65 74 0.520232 4 3852 5 3859
496 3.72217 1.45465 7.84618 9 29 37 0.447402 4 3857 5 1571
577 5.54912 2.15464 7.44789 38 40 39 0.0696089 4 4232 5 2109
1603 -0.140848 1.21105 9.19188 76 108 119 0.544524 4 8459 5 8375
498 4.25164 1.4144 7.76947 0 2 9 0.0935656 4 3868 5 3980
500 4.38913 1.4022 7.74905 66 81 87 0.0352268 4 3879 5 1578
581 -6.08253 3.0625 14.9206 103 131 137 0.695896 4 4279 5 4019
502 4.33168 1.47053 7.74373 81 92 96 0.108746 4 3882 5 1586
504 -5.69133 1.53372 15.3786 63 87 89 0.00141613 4 3965 5 5226
585 -4.84687 3.21647 14.229 89 109 116 0.245925 4 4287 5 5526
1611 4.74717 2.59451 7.27884 6 11 16 0.0264776 4 8476 5 8232
506 -4.29948 1.54703 14.8027 25 36 38 0.174265 4 3972 5 5233 6 4517
508 -1.70296 1.65129 10.679 2 25 37 0.42459 4 3985 5 1203 6 4791
589 -3.68507 2.81938 13.968 67 97 105 0.410107 4 4292 5 6425 6 6259
510 -1.47152 1.51867 10.4972 197 211 222 0.0250974 4 3989 5 5249
512 -0.823827 1.50402 9.9562 182 202 213 0.215168 4 3994 5 5253 6 5763 2 2037 1 2606
514 -0.778678 1.76594 9.82181 178 200 208 0.125934 4 3998 5 5347
1458 1.92674 4.37168 7.25915 4 9 13 0.16455 4 7882 5 7653
515 -0.858182 1.83401 9.841 186 208 217 0.203232 4 3999 5 5346
1975 1.90017 0.697187 8.7109 0 6 21 0.940337 5 7377 1 10064 3 4235 6 4917
516 -0.477504 1.57767 9.64198 5 22 35 0.44881 4 4004 5 5350 6 4897
1969 2.64119 3.64043 6.2341 129 129 127 0.22402 4 7444 1 9553 3 5179
518 -0.0960227 1.54326 9.03801 109 132 143 0.091596 4 4008 5 5359
519 0.245847 1.59893 9.16894 0 6 16 0.214896 4 4014 5 3810
520 0.282632 1.61346 9.16526 162 182 189 0.117188 4 4015 5 3811
522 1.09434 1.57722 8.72258 166 186 193 0.323944 4 4022 5 3818 6 3784
1466 0.306418 0.336944 9.65781 112 146 148 0.561933 4 7939 5 7697 2 8135 1 11340 3 6815
523 1.67401 1.56824 8.45261 111 141 151 0.11152 4 4026 5 3830
1983 -1.72574 3.6001 9.86413 44 46 60 0.379069 2 7877 1 10284 3 6215
524 1.80955 1.65401 8.35692 0 15 25 0.0821912 4 4028 5 5486
1977 2.79266 0.804464 8.04661 114 130 153 0.479081 2 7146 1 10114 3 5977
526 3.42828 1.71744 7.84563 39 73 83 0.107215 4 4038 5 3970
527 3.39116 1.83863 7.77525 37 68 79 0.194005 4 4042 5 1769
528 3.93532 1.68321 7.75331 34 52 64 0.5141 4 4048 5 1781
530 3.65145 1.8078 7.75454 47 60 69 0.126954 4 4051 5 1780
1410 -5.64892 2.81624 14.9885 125 154 158 0.165718 4 7694 5 7763 3 6906 1 10857
531 4.29612 1.61842 7.70552 0 4 6 0.172228 4 4060 5 1785
1927 0.104988 0.712058 9.44198 90 106 121 0.210836 2 1581 1 6431 3 4202
532 4.31958 1.64863 7.6848 0 2 5 0.00151977 4 4061 5 1787
1921 2.35098 -0.551673 9.21964 122 136 149 0.350241 2 5973 4 3317 1 5933 3 3992
534 -7.24736 2.26956 16.1066 125 154 156 0.185287 4 4113 5 5313
535 -6.89419 2.19157 15.9276 118 143 147 0.36218 4 4114 5 3741
536 -7.19531 2.53236 16.0274 1 17 21 0.183451 4 4117 5 3896
538 -6.30133 2.64214 15.3472 126 149 154 0.363716 4 4120 5 5418
1418 -1.10859 2.6815 9.69941 15 27 39 0.303871 4 7706 5 7828 2 7289 1 10206 3 4729
539 -5.69456 2.34324 15.1256 129 154 158 0.321186 4 4122 5 5321 2 4673
1929 -1.47708 1.52028 10.5157 233 243 250 0.262258 2 4695 1 6576 3 1980
542 -5.89382 2.66819 14.9969 130 158 160 0.297357 4 4127 5 5425
544 -5.1719 2.6153 14.7119 0 11 16 0.0972317 4 4132 5 5432
546 -4.06364 2.32989 14.4828 120 151 154 0.202618 4 4135 5 5438 6 4635
1362 3.59493 0.350855 8.3214 119 145 154 0.370204 4 7554 5 7380 2 7728 1 10806
547 -3.95459 2.25768 14.457 2 32 35 0.24801 4 4136 5 3911 6 4555 2 2013
1879 1.47589 2.95932 7.99164 104 112 129 0.244677 4 7773 2 7890 1 10994 3 7054
548 -3.9244 2.4357 14.3433 120 147 154 0.156717 4 4137 5 5439 2 4685
1873 -1.28418 2.3056 10.065 92 104 120 0.694275 4 7998 2 7809 1 10896
1216 3.3776 0.790929 8.19774 106 134 145 0.124414 4 7029 5 6930 2 7748
550 -2.34623 2.23568 11.1751 111 132 141 0.554585 4 4143 5 5449
551 -1.87664 1.97339 10.7132 120 147 156 0.720773 4 4144 5 3776 6 6312 2 4694
552 -1.59048 2.17065 10.2562 166 194 200 0.354767 4 4149 5 5455
554 -1.57184 2.22311 10.3012 0 14 20 0.121121 4 4151 5 5456 6 6336
1370 -0.791539 1.44676 9.95893 77 100 110 0.227011 4 7585 5 7725
555 -1.14881 1.92963 10.0427 161 181 192 0.165062 4 4153 5 5340 6 5805 2 2035
1887 -1.31388 3.30678 9.58737 181 197 210 0.607852 4 8260 2 8227 1 10987 3 7042
556 -0.967913 2.07964 9.7457 161 193 200 0.955142 4 4154 5 6375
1881 3.61945 4.16309 6.84643 1 3 2 0.193357 4 8144 2 7954 1 11110 3 7691
1224 -1.34844 1.12621 10.589 97 125 137 0.0277807 4 7074 5 7371
558 -0.632749 1.94151 9.63923 0 8 17 0.381238 4 4163 5 3940 6 3655
559 -0.668209 2.07057 9.57413 187 213 218 0.186414 4 4164 5 5466
560 -0.457555 2.17184 9.40752 0 8 13 0.149676 4 4166 5 3943 6 5052
562 -0.130189 1.88143 8.94858 0 5 15 0.187625 4 4168 5 5473 6 3770
1442 -5.89649 4.70621 13.3904 95 120 118 0.225735 4 7782 5 8066
563 0.252863 2.0779 8.96995 125 158 167 0.109144 4 4171 5 5478
1959 -0.0124144 1.41444 9.08997 0 3 15 0.420283 2 6267 4 5448 1 9059 3 4471
564 0.554765 1.93142 8.85237 0 13 21 0.433932 4 4172 5 3955 6 3888
1953 0.358417 0.683335 9.45964 4 8 28 0.18309 2 6161 1 8868 3 4224
1232 -6.6247 1.80054 15.7366 5 18 24 0.149153 4 7110 5 7389
566 3.41105 1.87157 7.73848 40 69 83 0.272449 4 4196 5 1771
567 3.51684 1.89299 7.7288 44 67 79 0.147116 4 4198 5 1776
568 3.57522 1.88048 7.73534 0 12 24 0.0553757 4 4199 5 4106
570 3.88022 1.92589 7.63375 13 30 37 0.270135 4 4207 5 1782
1450 0.169585 3.95618 8.29655 8 23 30 0.188382 4 7847 5 7906
571 3.86678 1.97022 7.64008 79 96 104 0.081337 4 4208 5 4111
